-2.53414989 -3.80808997 1.95414996
-6.17671013 -0.31821501 1.61120999
1.33697999 5.50160980 1.88734996
-0.16473800 4.83840990 1.99369001
-4.35728979 -1.70227003 1.97390997
-3.46954989 5.09141016 1.62837994
-2.66732001 5.42859983 1.70313001
-3.80226994 -1.95933998 1.86489999
4.27963018 2.24132991 1.99284995
-0.66851097 -5.90795994 1.76230001
3.66212010 2.36800003 1.89517999
-3.97565007 -1.69685996 1.88180006
0.35181901 4.21517992 1.84575999
-1.92258000 4.80385017 1.99239004
-3.27496004 4.43381977 1.93331003
-0.73255700 -3.78467989 1.63975000
-5.95110989 -1.06905997 1.70444000
1.61404002 4.83521986 1.99761999
3.18028998 2.78098011 1.84361005
1.97338998 4.41147995 1.99299002
-2.17392993 4.68740988 1.99302006
-3.44864011 2.53658009 1.86631000
4.94901991 -3.14048004 1.80501997
3.95034003 -1.63305998 1.86380994
5.48851013 2.25398993 1.76888001
1.83896005 -4.70616007 1.99931002
4.35916996 -1.43428004 1.95732999
3.74797010 -3.33910990 1.99989998
0.88079500 -5.55422020 1.90029001
2.91061997 -4.98188019 1.84590995
-4.15927982 -1.17823994 1.88190997
5.15248013 3.32550001 1.64849997
2.14428997 3.47832990 1.77901995
4.56804991 -3.56868005 1.83443999
-2.84202003 -3.01762009 1.80815005
-3.82746005 -1.65105999 1.81891000
-3.33237004 2.91320992 1.91593003
5.78914022 0.51437998 1.82776999
4.50783014 3.87977004 1.76129997
4.70931005 2.15229988 1.99207997
-0.29182500 -4.60129976 1.96170998
2.68189001 -3.56195998 1.92535996
-5.76386976 0.83566898 1.82230997
3.05576992 4.21973991 1.98895001
-2.04080009 -5.27039003 1.89084005
-5.20760012 2.33151007 1.87135994
-1.41273999 4.96968985 1.99304998
4.20204020 3.91155005 1.85773003
0.13621500 -4.17921019 1.82481003
0.26934800 3.84603000 1.64012003
5.21624994 0.41687500 1.98638999
4.30964994 -3.02751994 1.98213005
-5.55353022 -2.16614008 1.75397003
1.70956004 5.33424997 1.90740001
-2.57627010 -4.45179987 1.99484003
4.45413017 0.61585099 1.93558002
3.01571989 5.24839020 1.70027995
4.84840012 -0.04222500 1.99425995
0.05180780 -5.56501007 1.91846001
-0.40656301 5.32657003 1.97053003
2.08277988 4.66759014 1.99690998
-0.74220800 4.08560991 1.81155002
1.28689003 -3.76488996 1.71960998
1.04279006 5.18550014 1.97896004
-1.01472998 -5.89019012 1.74514997
-3.88612008 -0.09938360 1.66194999
-2.83669996 3.06362009 1.82202005
-3.65371990 -4.44948006 1.85104001
-3.77792001 1.20583999 1.71178997
3.71385002 -4.38885021 1.85432005
-1.16916001 -4.54384995 1.97612000
-3.33291006 -5.06562996 1.69366002
-2.99135995 -2.51044989 1.67374003
5.02311993 2.36806989 1.92192996
-0.95912200 4.94116020 1.99971998
-4.29893017 3.61635995 1.90221000
-4.39707994 4.32866001 1.62190998
-1.00361001 4.89646006 2.00000000
-4.44528008 1.27561998 1.96447003
1.76950002 4.43910980 1.98773003
-3.22814989 -4.10532999 1.98757994
-3.51473999 -4.46280003 1.88060999
3.06152010 -4.40964985 1.96580994
-3.46848011 4.06874990 1.96975994
-4.62308979 1.62600994 1.99752998
2.12777996 -5.27095985 1.87932003
3.59998989 -3.06416988 1.98134995
-3.79187012 0.78084600 1.65116000
3.97873998 -2.00283003 1.92413998
-1.08229995 4.50679016 1.96640003
-4.62434006 2.19405007 1.99649000
3.68427992 2.33070993 1.89470005
2.70479989 4.60268021 1.97113001
4.54579020 3.03702998 1.94472003
0.57646698 -5.84766006 1.79795003
0.33087701 5.16723013 1.99207997
-3.13551998 -2.87156010 1.85476005
0.42644101 -3.92355990 1.70014000
4.11218977 -0.85476398 1.83307004
4.33790016 2.77877998 1.99425006
-1.50955999 3.73768997 1.74959004
1.01206994 -4.35278988 1.92818999
-2.06684995 -4.67077017 1.99710000
3.68003011 -2.37931991 1.90218997
-1.74292004 -5.28662014 1.91808999
-3.16796994 2.98394990 1.89212000
2.76816010 3.76721001 1.97340000
3.37527990 -4.83835983 1.78638995
0.05994110 4.19141006 1.82945001
4.11018991 -3.32609010 1.97923994
1.60499001 -4.96384001 1.98820996
5.89514017 -0.26037100 1.78560996
4.14402008 -0.11442100 1.80831003
1.07650006 -6.00047016 1.67278004
0.80448902 -3.74085999 1.61945999
-5.85976982 -1.72941005 1.66393995
0.22118200 5.05028009 1.99924004
3.88088989 -0.92898601 1.72654998
-4.34223986 0.14490400 1.88958001
1.22561002 -4.84741020 2.00000000
3.76259995 2.87422991 1.98233998
-5.25935984 -2.29966998 1.85800004
3.57140994 1.57853997 1.67341995
1.21144998 5.46279001 1.90928996
-3.68694997 -1.35362995 1.68816996
-0.67541498 -4.01760006 1.77270997
-0.12962800 -5.38420010 1.96245003
4.17073011 -3.84148002 1.88434005
-5.84816980 0.43331799 1.80365002
5.05740023 2.86889005 1.82666004
-3.06943989 4.26131010 1.98409998
-4.37549019 -2.78344989 1.99135005
-2.35922003 3.66706991 1.89497995
1.28542995 3.94237995 1.80881000
-0.64831603 5.78341007 1.82433999
-2.08365989 5.14200020 1.92341995
3.62766004 2.19812012 1.85064995
-3.87687993 4.08842993 1.89674997
2.02134991 4.84514999 1.98433006
4.34943008 -3.40130997 1.93083000
3.73453999 -2.22018003 1.88958001
-5.61228991 1.86798000 1.77841997
0.05912160 -6.01508999 1.72308004
-2.64947009 5.14605999 1.83818996
0.99064100 5.76556015 1.81035995
4.30297995 0.42857301 1.88239002
-3.63964009 1.31640005 1.65044999
3.90455008 3.33314991 1.99552000
0.61821699 -4.46762991 1.93910003
2.24360991 4.66504002 1.99219000
4.64287996 3.00058007 1.92902005
-1.69951999 3.88685989 1.85087001
-4.82039022 0.27440399 1.99260998
-4.61157990 2.56001997 1.98107004
-4.62646008 1.16473997 1.98683000
4.16844988 -0.36155999 1.82600999
-1.10430002 -3.79606009 1.70431006
-2.83960009 -5.13786983 1.80069005
4.23021984 0.46090999 1.85617006
-4.10896015 4.14499998 1.81666994
-5.49773979 1.36175001 1.88660002
-2.47882009 -5.02663994 1.90641999
6.09821987 -0.54882598 1.65504003
1.61685002 4.36908007 1.97064996
-0.03539310 -4.56034994 1.95111001
0.65160400 4.55223989 1.95931005
5.23147011 1.24365997 1.96410000
5.08643007 -2.92578006 1.80189002
-1.04542005 5.89944983 1.73701000
-3.24868989 2.33281994 1.73176003
-3.44332004 -3.05640006 1.96043003
-4.31067991 1.87248003 1.97733998
-3.39298010 3.55060005 1.99802005
-0.47904000 6.14680004 1.62533998
-0.82470000 -4.75422001 1.99234998
-0.50534803 -5.00281000 1.99979997
4.35394001 -3.97906995 1.78691995
5.23472977 0.18020500 1.98581004
4.50207996 -4.06374979 1.69294000
3.50008011 5.00193977 1.66709006
2.78197002 4.17349005 1.99994004
2.73523998 -4.26847982 1.99879003
5.75479984 2.03806996 1.66700006
-4.40040016 -0.01203390 1.90801001
-3.83527994 -0.79265398 1.68096995
-5.37496996 -1.39880002 1.92174006
-3.54998994 4.80615997 1.74619997
-4.24266005 3.93829012 1.83787000
3.30081010 -2.06358004 1.66554999
-1.63574004 -3.79093003 1.80026996
1.69507003 -5.63120985 1.79560006
2.30379009 -5.69112015 1.64347994
-0.27990800 4.46227980 1.92878997
-1.49103999 -3.82065010 1.78670001
-4.93343019 3.06383991 1.82977998
0.89890897 5.26434994 1.97079003
-3.62891006 2.31076002 1.87431002
0.76231402 4.01543999 1.77953005
-0.37968901 -5.54944992 1.91928995
2.86968994 4.79638004 1.91120994
0.93591100 4.67552996 1.98652995
3.03926992 4.37465000 1.97311997
4.41618013 1.79586995 1.98642004
5.42713022 0.34889299 1.95138001
-2.10032010 5.58429003 1.75112998
-3.98055005 -2.41534996 1.97019994
3.38737988 2.32713008 1.79093003
-0.90700400 5.42278004 1.93698001
3.11222005 4.47006989 1.94946003
5.86110020 -1.43880999 1.71129000
-4.28425980 1.13826001 1.91790998
-5.16420984 2.67820001 1.82535005
-1.93388999 -4.33914995 1.98439002
0.26112700 5.62487984 1.89786994
-3.23111010 -3.85950994 1.99971998
1.26110995 4.66353989 1.99284995
3.94236994 -4.72999001 1.63100004
-5.99844980 0.59071201 1.71589994
-5.70817995 -1.56111002 1.77698004
-5.15539980 0.52830797 1.99167001
4.28372002 -1.29191995 1.92966998
-3.19044995 -2.70349002 1.82500005
-4.29821014 2.35232997 1.99749005
4.39392996 -3.30631995 1.93675995
-1.11780000 4.49216986 1.96531999
-2.01255989 -3.44444990 1.72583997
0.18629000 -3.92604995 1.69000006
0.45986199 -4.57111979 1.95840001
5.39835978 1.11394000 1.93333006
2.42968011 -4.28003979 1.99846005
4.36227989 4.29262018 1.65690005
2.02876997 -3.89095998 1.90409994
2.29980993 5.63972998 1.67646003
1.79104996 3.45451999 1.66452003
-5.06699991 -1.83941996 1.96150005
0.86102301 4.95736980 1.99975002
1.50481999 5.21720982 1.95325005
-2.93376994 -3.14945006 1.87505996
-3.71291995 -2.53884006 1.93596005
-1.98299003 -4.77289009 1.99290001
3.88960004 3.69670010 1.96621001
4.57142019 -1.29973996 1.98464000
-5.09467983 0.12146300 1.99768996
-5.34937000 3.00927997 1.64487004
4.09813976 -0.69296497 1.81333995
-4.94473982 -0.77304798 1.99998999
4.82695007 -0.30693501 1.99331999
-2.84630990 3.64608002 1.96463001
-3.74343991 3.56359005 1.99290001
-3.87493992 -1.56352997 1.82349002
4.39810991 -1.65384996 1.97719002
-0.94964898 5.98613977 1.69536996
-4.12782001 -3.87969995 1.88624001
-4.01033020 -2.92900991 1.99970996
-4.43626022 -1.95589006 1.99424005
-3.94068003 -1.88898003 1.89819002
-1.69080997 5.20530987 1.94324994
-3.80784988 -1.84872997 1.84704995
4.96399021 -0.01148390 1.99968004
3.26383996 -2.79519010 1.87243998
-0.31616101 -6.16161013 1.62226999
4.28000021 0.86464298 1.89700997
-2.67044997 4.30555010 1.99890006
3.58838010 -3.15474010 1.98764002
3.88599992 0.53517699 1.68504000
0.59451699 5.53551006 1.91784000
-3.72603011 2.63454008 1.95175004
-4.34073019 -2.61626005 1.99883997
-3.58565998 2.37754011 1.87434995
1.13171005 -4.33253002 1.93065000
-0.71751702 4.51634979 1.95387995
2.68739009 4.48329020 1.98706996
-5.67277002 2.40770006 1.62740004
-2.48214006 -5.45694017 1.73496997
-4.10452986 -2.42908001 1.98667002
3.36821008 -1.84125996 1.62826002
-1.97344005 3.90886998 1.90108001
-1.75300002 -5.09867001 1.96129000
1.63266003 -5.40303993 1.89337003
-3.48866010 4.61231995 1.84030998
0.04051790 -5.81106997 1.82809997
1.23048997 -5.35008001 1.93911004
-3.50243998 -1.87223995 1.71525002
4.70769978 -0.38973600 1.98083997
-4.46857977 -0.25085199 1.93002999
-1.28922999 5.70765018 1.80971003
4.21299982 -4.00160980 1.82840002
-4.01370001 1.03593004 1.80814004
2.16225004 -4.46649981 1.99965000
1.87284005 -3.68570995 1.80290997
3.85329008 3.24271011 1.99967003
-0.34041500 -5.01128006 1.99986994
1.26447999 -4.00716019 1.83387005
4.02370024 -1.31501997 1.84713995
2.37285995 -4.97757006 1.93276000
4.49923992 -2.85969996 1.97239995
4.93004990 2.48304009 1.93121004
-3.95415998 -1.49908996 1.84533000
2.42301011 4.47193003 1.99813998
-4.09065008 -4.30378008 1.76656997
-4.23498011 -3.92550993 1.84396005
-5.88228989 0.66228598 1.77611995
-2.40982008 -3.23852992 1.75275004
-4.88509989 2.37516999 1.95281005
-3.22937012 -4.13738012 1.98450005
3.73640990 1.67806995 1.78400004
-1.19809997 4.05811024 1.84635997
-3.33058000 -2.57294011 1.83677995
3.59156990 -1.60309005 1.69166994
-1.99541998 -5.72099018 1.69661999
-1.97579002 -5.36286020 1.86773002
-4.40348005 -3.23554993 1.94534004
3.85729003 -3.55088997 1.98520005
-3.92038012 -2.14849997 1.92864001
-2.96961999 4.15016985 1.99733996
-4.82455015 -1.06025004 1.99908996
-3.55151010 2.67295003 1.92145002
-5.31744003 2.62363005 1.77090001
-4.37769985 -3.61784005 1.88115001
-3.71816993 -3.93857002 1.95617998
3.82632995 1.62893999 1.81441998
-2.41945004 -4.14577007 1.98999000
-1.46662998 4.68703985 1.99802995
-0.67214203 -5.37161016 1.95678997
1.43404996 -5.12446022 1.97402000
1.77678001 -5.06632996 1.96569002
-0.37987101 -4.08363008 1.78669000
-5.82824993 -1.52760005 1.71730995
-2.23343992 -5.06677008 1.92650998
-5.91035986 1.36825001 1.69181001
1.54508996 4.65981007 1.99793994
-1.31529999 5.06968021 1.98584998
4.98712015 -1.35444999 1.99294996
-0.45420200 4.24841976 1.86304998
2.31048012 -3.20215988 1.70139003
-1.80148995 4.03786993 1.91451001
-1.70078003 5.77153015 1.72218001
3.44479990 3.00914001 1.95411003
0.66153198 -6.07983017 1.65987003
6.05296993 0.04811370 1.70025003
4.45608997 2.26134992 2.00000000
-3.15385008 -2.45030999 1.72847998
1.61353004 -4.66365004 1.99893999
3.38596010 -2.45434999 1.82503998
1.84477997 3.53443003 1.72442997
-0.33123699 -4.04481983 1.76445997
-2.47732997 -5.48872995 1.71922004
-4.59630013 0.62526798 1.96708000
-0.74826002 3.99454999 1.76747000
1.10409999 5.69843006 1.83109999
-1.20864999 3.83839989 1.74580002
5.60996008 -1.11603999 1.86594999
3.11529994 3.03114009 1.89025998
-4.60174990 -0.77531201 1.97202003
0.57653397 5.25387001 1.97952998
2.78636003 3.13436007 1.83032000
-2.81308007 -4.02426004 1.99796999
-3.54917002 -3.29122996 1.99362004
-2.15355992 -4.46940994 1.99961996
-4.92583990 -0.55166101 1.99952996
-1.97049999 -5.62017012 1.75694001
1.75446999 4.44302988 1.98751998
-1.31795001 4.12916994 1.88599002
5.99351978 -0.28572699 1.73186004
-1.17132998 3.79796004 1.71706998
-0.82332098 5.40660000 1.94424999
4.14369011 -2.40967989 1.98930001
-1.99110997 -4.26358986 1.97820997
4.88130999 1.09591997 2.00000000
2.04532003 4.81010008 1.98708999
-0.70908499 -4.61434984 1.97233999
4.51046991 0.95066297 1.96151996
3.88579988 1.04682004 1.74586999
-0.83224797 3.78575993 1.65437996
-3.30100012 -2.21480989 1.71747005
-2.20521998 3.51662993 1.81078994
-3.80858994 -3.23740005 2.00000000
-4.49266005 0.89146000 1.95545995
2.78727007 -2.88422990 1.73831999
-5.04432011 2.14147997 1.94152999
5.31255007 -1.29124999 1.94465995
-0.87818199 6.03823996 1.66916001
0.97361201 5.36172009 1.94886005
-3.44001007 2.10719991 1.75128996
-4.39524984 -0.49178201 1.91486001
-3.70682001 -2.74454999 1.96205997
5.09576988 2.22577000 1.91981006
3.26816010 3.22927999 1.95844996
-4.68535995 0.37369201 1.97740996
-3.70022988 -0.94746500 1.61451995
2.55658007 -4.61722994 1.98062003
1.03465998 -6.05485010 1.64146996
2.25255990 5.27353001 1.86026001
5.22796011 -3.13015008 1.67465997
-1.56631005 -4.82027006 1.99882996
3.78204989 1.21086001 1.71508002
1.90000999 5.62156010 1.76853001
0.32192799 -4.77043009 1.98800004
-1.14052999 -5.57894993 1.87559998
3.64996004 3.88326001 1.97270000
-2.47967005 4.13718987 1.99219000
5.60944986 1.02980006 1.87230003
-1.99448001 -5.41152000 1.84693003
4.20972013 0.67748600 1.85960996
3.95973992 1.88697004 1.90354002
1.65047002 -4.73623991 1.99994004
-4.86523008 -0.83472800 1.99899006
-0.64365703 5.32559013 1.96652997
3.86736012 1.16796005 1.75446999
5.05255985 2.79099989 1.84492004
-1.84463000 4.64693022 2.00000000
3.92776990 -2.77074003 1.99064004
4.51512003 0.77527303 1.95565999
-4.53878021 -1.12422001 1.97356999
-4.68712997 2.99601007 1.91917002
-6.03727007 -0.23278500 1.70726001
4.15287018 0.84680802 1.84928000
4.10467005 -1.40866995 1.88785005
-0.90397400 -4.09520006 1.83030999
-2.12601995 3.26867008 1.66983998
-0.84518403 -4.53281021 1.96178997
0.97807801 -5.19937992 1.97878003
3.51329994 -4.17631006 1.94695997
-1.23916996 -5.58449984 1.86578000
4.53001022 -0.61086702 1.95344996
3.98467994 -0.24473400 1.72751999
0.55909801 -5.89562988 1.77476001
-4.16274977 -4.13246012 1.80296004
4.34960985 3.10112000 1.97055995
-1.75685000 -4.46050978 1.98936999
4.17505980 -0.53453302 1.83699000
4.20760012 -0.17093401 1.83782005
4.22631979 2.57653999 1.99936998
0.83133203 5.74883986 1.82923996
4.09050989 -0.77366602 1.81645000
5.54104996 -1.14479995 1.88863003
-3.12418008 3.54428005 1.98096001
4.60792017 -2.54666996 1.98239005
-0.87807900 3.83241010 1.69079006
4.13391018 3.39317989 1.96946001
3.47830009 -1.86884999 1.70132005
3.82596993 4.03047991 1.92080998
5.80642986 -1.64749002 1.71098006
4.45812988 3.07488990 1.95632005
-3.47899008 -4.83494997 1.75644004
-4.67600012 -0.25692201 1.97473001
2.97599006 4.47103024 1.96530998
-1.42227995 -4.97219992 1.99261999
-0.31732300 -4.84829998 1.99500000
1.72353995 3.64545989 1.75033998
-1.63524997 4.45140982 1.98332000
-1.43816996 5.49869013 1.87952995
5.10327005 3.34079003 1.67063999
-1.84542000 -5.84371996 1.65142000
-4.13157988 4.04762983 1.83998001
-5.57180977 -1.00992000 1.88705003
3.26300001 -4.17969990 1.97697997
4.43183994 1.62208998 1.98020995
-1.80579996 3.90026999 1.87276006
-4.29866982 -2.72760010 1.99793005
4.29241991 2.27681994 1.99502003
-5.44811010 0.44360799 1.94491994
4.03956985 -3.47082996 1.97327006
3.33621001 2.15908003 1.71671999
-3.49645996 -4.77686024 1.77595997
-3.50541997 -4.56274986 1.85248995
3.09206009 3.52005005 1.97508001
-4.59441996 -3.30147004 1.88880002
-0.38304701 5.00289011 1.99992001
-3.70689988 -3.56691003 1.99478996
0.00960155 4.77831984 1.98767996
-3.70703006 1.83058000 1.80297005
-3.08731008 -2.34091997 1.65322006
-0.86541098 5.12283993 1.99043000
4.06541014 0.74891001 1.80270004
-3.93994999 1.62447000 1.85873997
2.87401009 3.40644002 1.92483997
-4.21199989 2.65764999 1.99989998
2.91808009 -4.34418011 1.98635006
5.47264004 2.14336991 1.79727006
-1.76195002 -3.76505995 1.81362998
1.36000001 -5.97079992 1.65445995
-3.60364008 -2.75098991 1.94487000
3.55826998 -4.34874010 1.90181005
3.35647011 -4.61232996 1.87187004
3.85121012 -1.93355000 1.87696004
-0.29580900 4.38445997 1.90611994
-0.89701903 6.03050995 1.67238998
3.37184000 2.51808000 1.83664000
0.53939301 3.93540001 1.71570003
-2.65538001 4.91133022 1.91307998
3.38025999 4.64961004 1.85466003
3.13369989 -3.86315989 1.99984002
-2.51800990 -3.42679000 1.85503995
0.60416102 3.95009995 1.72976005
2.61541009 -3.61807990 1.92694998
-2.76765990 -2.83261991 1.70849001
2.25814009 5.46679020 1.77850997
-3.06221008 -4.88920021 1.84625006
3.62760997 2.27589989 1.86684000
0.57765502 -4.91193008 1.99926996
1.99623001 -4.33874989 1.98740995
0.20584300 4.53535986 1.94639003
0.25536901 -5.91351986 1.77634001
4.96294022 -1.41592002 1.99351001
-3.87089992 -3.96227002 1.92593002
-1.55706000 5.02768993 1.98259997
2.49090004 -4.03504992 1.98327994
-4.19352007 -0.40148401 1.83852005
-5.52839994 2.66233993 1.64601004
-3.87671995 -2.50080991 1.96227002
-1.36299002 5.22407007 1.95981002
3.80618000 2.51696992 1.95169997
2.23511004 -3.16029000 1.65074003
-0.63416302 -3.92580009 1.71837997
5.44103003 -2.39927006 1.76182997
-1.81110001 -4.98480988 1.97681999
-4.14773989 4.28809977 1.75132000
2.22098994 4.81168985 1.97744000
-2.99197006 3.83116007 1.99517000
-1.31971002 5.92085981 1.69213998
-4.53670979 2.85870004 1.96692002
-4.70495987 3.54239011 1.79135001
4.19786978 1.11053002 1.88875997
4.23740005 0.31965101 1.85381997
-4.95316982 -0.02256310 1.99944997
2.37854004 -3.23149991 1.73920000
-3.26018000 -2.40402007 1.76033998
3.88344002 2.68376994 1.98038006
-5.65076017 -2.38509011 1.64778996
3.13308001 -4.52192020 1.93615997
-5.66014004 0.71814197 1.87143004
-3.81167006 4.27456999 1.86310995
-4.70569992 -3.96529007 1.63374996
-5.84973001 0.82690799 1.78206003
5.98573017 -1.40367997 1.63762999
-2.88776994 -2.85443997 1.76556003
-4.69075012 -0.68993998 1.98318994
-3.51802993 -2.63433003 1.90630996
-3.53920007 -2.36767006 1.85732996
4.18091011 1.43945003 1.91459000
2.28717995 4.42537022 1.99991000
-0.75824499 -5.48453999 1.92664003
-4.23901987 -0.93620902 1.88837004
3.48719001 -2.43126011 1.85448003
-2.75279999 -3.80953002 1.97738004
4.65213013 0.61918002 1.97632003
3.23649001 3.91016006 1.99855995
-2.08958006 -4.50665998 1.99974000
5.15261984 -0.75109100 1.98924994
-3.86690998 1.34238994 1.78266001
-3.60805988 1.59283996 1.69850004
-2.33091998 4.23252010 1.99292004
5.36401987 1.47046995 1.91944003
-3.63070011 -4.30117989 1.89862001
-4.74349022 1.49240994 1.99980998
-5.73365021 1.50627005 1.77155995
-3.78256989 0.70624202 1.63485003
3.96783996 1.34498000 1.82844996
4.56287003 0.79516798 1.96578002
4.51289988 2.07916999 1.99976003
2.48916006 3.30282998 1.80364001
3.99386001 1.18596995 1.81791997
2.41121006 5.40841007 1.77503002
-2.89697003 -4.68495989 1.93432999
-1.45058000 -5.40316010 1.90960002
5.82918978 -0.79152799 1.79468000
-0.26270899 -5.40012980 1.95825005
-0.29027000 6.05808020 1.69283998
-3.06764007 3.27800012 1.93375003
-3.93437004 3.58576012 1.97370005
-4.35761976 2.15229988 1.99511003
3.81946993 4.47518015 1.79427004
-3.31469989 -4.96759987 1.74793994
3.46772003 -2.57889009 1.88141000
0.51391101 -6.14038992 1.62791002
-0.77821797 4.94143009 2.00000000
0.83504802 -6.04687023 1.66752005
1.23092997 3.92935991 1.79483998
1.74548995 -4.91005993 1.98882997
-1.02582002 3.75156999 1.66322994
-4.83823013 -0.51683402 1.99548995
-1.83676004 5.54198980 1.81577003
3.46910000 3.24362993 1.98422003
2.29191995 3.62347007 1.86877000
3.43242002 -4.08634996 1.97147000
2.58609009 -4.13118982 1.99601996
1.44913995 5.12983990 1.97248995
-5.26365995 -1.49389994 1.94361997
1.40245998 -4.28679991 1.93913996
-0.29779401 5.75335979 1.84954000
3.71743011 -3.50627995 1.99697006
-0.34900400 5.15506983 1.99302995
4.78604984 3.66365004 1.71598995
-1.25430000 4.53666019 1.97839999
1.94963002 -4.11790991 1.95011997
-1.36701000 4.72305012 1.99827003
3.79128003 2.29886007 1.91817999
-3.78771996 -1.91927004 1.85251999
-4.67914009 0.47839701 1.97790003
-3.37222004 2.01225996 1.68778002
3.80226994 -1.72422004 1.82189000
0.65716600 -4.20836020 1.85781002
5.20934010 -0.75544202 1.98251998
2.58488011 4.68526983 1.96896005
0.65165800 4.87480021 1.99833000
4.96374989 -0.24460199 1.99977005
-4.25704002 2.63643003 1.99998999
1.58980000 -3.50285006 1.63400996
3.28459001 -2.24312997 1.71884000
-1.09958005 5.06523991 1.99159002
0.82923400 -5.42479992 1.93959999
-0.98663503 4.36504984 1.92990994
2.63432002 3.50854993 1.90388000
2.73610997 -5.05030012 1.85652995
-1.62829995 -3.51564002 1.65319002
4.23289013 1.06287003 1.89628005
-3.69516993 1.63419998 1.75476003
2.43334007 4.72486019 1.97510004
-0.75466400 5.61630011 1.88557994
4.24011993 0.39993501 1.85764003
1.30695999 -5.25745010 1.95594001
3.57726002 1.80589998 1.73620999
-2.49906993 -4.34930992 1.99993002
-5.28712988 -0.74612898 1.97097003
-2.62890005 3.36790991 1.86298001
-4.11996984 -0.13361999 1.79703999
3.03348994 -3.75490999 1.99251997
5.31774998 -0.22691000 1.97380996
-0.61671799 -6.10784006 1.64405000
-5.14524984 3.27619004 1.67049003
-2.72106004 3.06639004 1.78586996
3.93742990 0.90060902 1.75405002
2.76165009 -3.28818011 1.87126005
0.42097199 -5.27501011 1.97860003
4.24889994 1.60116994 1.94651997
-1.44597006 -4.95698977 1.99329996
4.64350986 -0.50090700 1.97265995
-3.58383012 2.72161007 1.93651998
2.95830011 5.31065989 1.68394995
1.23558998 4.16280985 1.88876998
1.12282002 -5.75691986 1.80307996
0.10986000 4.40983009 1.91136003
4.58266020 -0.07750570 1.95611000
-3.85184002 -1.21267998 1.75356996
-5.55561018 1.04112995 1.89063001
-4.97475004 0.32847399 1.99995005
-4.68229008 1.97440004 1.99834001
-0.35396099 5.21452999 1.98713005
-1.73231995 3.61527991 1.73714995
2.59590006 5.07462978 1.87347996
-2.39205003 -4.92037010 1.94375002
-3.74129009 3.26593995 1.99971998
-2.99687004 -5.15602016 1.75250006
-2.74770999 5.28468990 1.75653994
4.39940977 1.60720003 1.97485006
0.03439920 -4.72642994 1.98122001
3.51839995 2.92711997 1.95471001
-3.46726990 3.37077999 1.99324000
-3.99457002 -3.41734004 1.98343003
4.73972988 -2.86843991 1.92569005
-5.10015011 0.69950402 1.99451995
4.88891983 -1.43188000 1.99777997
3.27103996 3.91420007 1.99744999
-1.31237996 4.54300022 1.98152006
1.35197997 5.53474998 1.87443995
2.71520996 3.51800990 1.92114997
-4.43862009 -2.09403992 1.99786997
-3.97539997 -0.41325101 1.73020995
3.82444000 1.12942004 1.72490001
2.16936994 -3.27786994 1.69016004
2.05723000 5.69993019 1.69611001
-4.43268013 3.31681991 1.92676997
5.33322001 0.30006400 1.97060001
-2.36811996 3.11512995 1.67885005
5.29370022 1.09657001 1.95834005
-5.11950016 2.50205994 1.87416995
-4.57917023 0.02945850 1.95524001
2.68164992 -4.32180023 1.99813998
-1.64392996 -3.59806991 1.70579004
4.59021997 -3.61504006 1.81374002
-0.13522001 5.19950008 1.98985004
-1.83911002 -4.58514023 1.99910998
0.06825770 -5.10529995 1.99720001
0.78526199 4.39738989 1.92765999
1.47539997 -5.95046997 1.64973998
4.08277988 -0.82944500 1.81789994
3.22607994 -5.21148014 1.65073001
-0.51855099 5.89529991 1.77683997
-3.30556011 -3.73403001 1.99995995
-4.46629000 -1.56559002 1.98205996
1.23257005 -3.94390988 1.80183995
3.76064992 4.55108023 1.78413999
-2.01623988 3.67358994 1.82887006
-3.33468008 -4.24944019 1.95924997
3.69998002 1.43116999 1.71264994
-3.08500004 2.55471992 1.73520005
-3.89499998 -1.95378995 1.89400995
3.98106003 3.25240993 1.99504006
1.71352005 -4.88768005 1.99194002
4.27946997 -4.43524981 1.62693000
4.38465023 0.73771298 1.92182004
2.09980011 -3.61041999 1.82265997
-0.46421599 5.47815990 1.93706000
1.28735006 4.85483980 1.99986994
-4.35970020 3.94438004 1.79638004
3.54780006 3.79847002 1.99021006
3.27429008 5.23047018 1.62149000
5.07696009 2.78254008 1.83758998
-3.88243008 2.55780005 1.96901000
1.15399003 3.71226001 1.66201997
-0.69495398 3.94882011 1.73750997
-3.39948010 -1.81718004 1.63959002
-5.18752003 1.04480004 1.97861004
-4.31677008 -0.30420801 1.88354003
-0.68643701 4.18569994 1.85064006
4.82704020 2.03091002 1.98591995
-5.74886990 0.96449900 1.82000005
-4.17299986 3.35560989 1.96827996
-5.24000978 -0.16016500 1.98525000
2.73896003 -3.42957997 1.90441000
4.66568995 1.11243999 1.98961997
2.43969011 5.59588003 1.66729999
-0.40222499 5.14933014 1.99318004
1.97925997 4.77509022 1.99284005
2.64118004 -3.43027997 1.88417995
4.99107981 2.57333994 1.90295994
-5.12268019 0.82859099 1.99102998
-3.75335002 2.02287006 1.85956001
4.95141983 1.90664005 1.97648001
-5.27791023 2.49108005 1.81677997
2.01694989 -3.73764992 1.85289001
1.66035998 5.15537024 1.95623004
3.94892001 0.34222999 1.71060002
0.08045860 4.51470995 1.94041002
-3.55407000 -4.09679985 1.95463002
5.65849018 -1.73752999 1.77622998
2.63698006 4.33650017 1.99857998
4.55177021 2.10747004 1.99994004
-3.85025001 3.18455005 2.00000000
5.61793995 -2.13224006 1.72684002
-1.96237004 -3.44400001 1.71065998
3.02043009 -2.71188998 1.76492000
4.64988995 0.81254202 1.98035002
4.72463989 2.47929001 1.97162998
-2.12524009 4.32377005 1.99169004
-4.53740978 -3.89373994 1.74397004
2.34032011 -3.98308992 1.96352005
4.85302019 1.31045997 1.99981999
0.02459640 -3.92812991 1.68857002
-5.99902010 1.12809002 1.66758001
-3.71286011 -4.69070005 1.74214005
0.35778099 -4.36884022 1.90260005
-3.75656009 -3.60707998 1.98915994
-4.35369015 -1.82070005 1.98017001
4.83522987 3.19643998 1.83466005
-2.95267010 2.62310004 1.70192003
2.55928993 -2.95576000 1.67673004
-4.81184006 -2.86845994 1.90725994
0.36688501 -5.10013008 1.99679005
-2.22836995 -5.27512980 1.86338997
-3.81603003 -1.82493997 1.84581006
4.29223013 -3.15995002 1.97258997
0.33557200 -6.10068989 1.66375995
3.27812004 -3.05135989 1.93080997
4.65326023 0.35078999 1.97198999
-4.54229021 -1.97309995 1.99942994
0.77495700 4.90399981 1.99969006
-4.34717989 2.78503990 1.99336004
3.11809993 -3.14867997 1.91744995
4.39565992 -2.10506010 1.99600995
0.41376701 -5.32375002 1.97091997
-4.96770000 -1.11096001 1.99795997
-5.92680979 -0.18488100 1.77077997
-2.48150992 -5.53622007 1.69164002
-0.28197300 5.56701994 1.91580999
-0.47112200 -4.17363977 1.83308995
-4.90474987 -1.63266003 1.99282002
5.95897007 0.57519102 1.73968005
-3.03617001 -2.52568007 1.70181000
3.26301003 -3.77909994 1.99998999
1.70668006 4.72182989 1.99988997
-3.85148001 -0.64194202 1.67335999
5.66784000 0.52917600 1.87628996
4.01981020 -0.98434502 1.80498004
-3.54551005 4.30241013 1.91553998
5.36466980 -1.11282003 1.94182003
-0.42797500 4.87533998 1.99719000
-1.02840996 -4.22648001 1.89136004
4.58885002 0.87980998 1.97299004
-4.11036015 -0.02124310 1.79127002
4.81676006 2.57702994 1.94571996
-3.18990993 -3.23268008 1.94675004
2.02199006 4.68596983 1.99731004
-0.57254797 -4.38019991 1.91328001
-3.89301991 0.10641400 1.66667998
4.11350012 -2.03239012 1.95713997
5.11597013 1.83001995 1.95246994
-0.84683198 4.86682987 1.99909997
4.62436008 -2.06051993 1.99901998
-2.24434996 4.77707005 1.98057997
3.56679010 -3.55995989 1.99960995
-5.36204004 1.30157006 1.93182003
2.24330997 3.43639994 1.78797996
4.13591003 4.30618000 1.74864995
-0.97354102 5.98064995 1.69639003
3.02967000 2.49784994 1.68754005
2.23201990 4.06611013 1.96704996
0.86959702 4.31545019 1.90857005
-5.30763006 1.50389004 1.93213999
-4.58626986 2.15303993 1.99889004
4.68539000 -3.43467999 1.82887006
-5.90072012 -1.70565999 1.64170003
1.71721005 -4.81501007 1.99686003
-2.97369003 -3.98674989 1.99983001
-3.34446001 -2.63883996 1.85812998
3.62372994 1.51581001 1.68842995
-1.29231000 3.91837001 1.79891002
-0.50957698 -3.93185997 1.71121001
4.00911999 -0.83647799 1.78375995
2.14382005 5.31443024 1.86179996
2.26440001 -4.35777998 1.99802005
-3.57026005 -2.87949991 1.95684004
-5.74430990 -0.58931601 1.84396994
5.55755997 1.73745000 1.82290006
-3.49446988 2.66283989 1.90578997
3.85521007 -2.30064011 1.93375003
-4.15896988 -0.84419602 1.85151994
-1.64381003 4.80410004 1.99849999
1.58018005 -5.56890011 1.83790004
4.76839018 1.45637000 1.99995005
-0.13949300 4.87412977 1.99616003
-5.94765997 -0.13798200 1.76037002
5.13816023 2.69495010 1.83214998
-2.10331011 4.99832010 1.95479000
-2.64844990 3.28978992 1.84306002
1.77181005 -5.08059978 1.96343994
-2.05472994 -4.03205013 1.94288003
3.26918006 -4.71134996 1.86025000
-1.52730000 -5.06280994 1.97913003
-2.12790990 -3.97949004 1.93972003
2.78235006 5.15505981 1.80660999
-5.15894985 -0.98820603 1.98397005
4.57962990 -2.84827995 1.96098006
4.95151997 1.78635001 1.98250997
-1.59101999 -5.31750011 1.92277002
3.40663004 2.57835007 1.86293995
-3.45157003 3.83254004 1.99377000
3.44694996 -4.00833988 1.97935998
-2.85783005 2.79848003 1.73195004
-3.88326001 -2.72844005 1.98380005
-4.11870003 -0.19967400 1.79771996
-2.44801998 -5.45881987 1.74197996
-0.67321301 5.82551003 1.80360997
-0.20877400 -5.56244993 1.91813004
0.36713701 -5.56770992 1.91410995
2.33904004 4.15933990 1.98695004
-3.60918999 4.17416000 1.93172002
-3.91486001 -0.69607002 1.71812999
-4.46527004 -3.99915004 1.73531997
-3.39261007 2.24483991 1.76960003
2.51683998 -3.65260005 1.91875994
-0.12759200 -5.50207996 1.93557000
-4.69429016 -0.11243200 1.97669995
-5.36884022 -1.56036997 1.91068995
2.55895996 4.58729982 1.98396003
4.63101006 -0.05228540 1.96572006
-3.20215988 -3.00338006 1.90478003
4.97986984 1.40344000 1.99242997
-4.15782022 -1.74662995 1.93899000
-4.69989014 -0.36152899 1.97941005
-4.14785004 3.60908008 1.93695998
3.99811006 0.69992799 1.76475000
-4.91900015 -0.51176500 1.99925995
-1.90573001 5.58302021 1.78639996
3.78338003 -2.59945989 1.95758998
5.40956020 2.08568001 1.83403003
5.75858021 0.17915900 1.84941006
3.93607998 -0.28692499 1.70006001
4.67039013 0.29736701 1.97421002
-4.70078993 -0.26167801 1.97858000
-4.61611986 -2.49585009 1.98460996
-1.53138006 3.81389999 1.79099000
5.13464022 1.88182998 1.94431996
4.57605982 1.07663000 1.97751999
3.94548011 -4.29936981 1.81719005
-5.77752018 1.59976006 1.73497999
0.88819599 5.77060986 1.81570995
-1.84121001 3.86910009 1.86776996
-1.03697002 -4.61510992 1.98171997
-1.75353003 3.55495000 1.71070004
-4.80256987 -3.33926010 1.81067002
-1.21591997 -4.25236988 1.91489995
2.92476010 -3.04014993 1.84104002
-5.52308989 2.07101011 1.78675997
3.29258990 -2.08068991 1.66697001
-0.71503198 4.97428989 1.99984002
3.07857990 -4.58138990 1.93131006
-0.86426198 4.31470013 1.90801001
-4.77747011 -3.62716007 1.73299003
4.81942987 -1.76628995 1.99557996
-3.70216990 -1.44641995 1.71719003
0.19712700 3.98112988 1.72388995
2.74036002 -4.67523003 1.95558000
-4.19633007 -3.88878989 1.86545002
-4.42924976 -0.69241703 1.93202996
0.67687201 -5.57975006 1.90126002
-2.20366001 -3.79965997 1.90549004
0.03797650 -5.78715992 1.83852994
1.35220003 -5.25039005 1.95502996
3.09469008 -2.82399011 1.82842004
-0.85767001 -4.25918007 1.88959002
5.71377993 0.89173597 1.84037995
4.13860989 -2.42408991 1.98959994
-2.28604007 4.56637001 1.99715996
-4.33236980 3.24796009 1.95653999
0.59805101 6.09300995 1.65543997
2.42103004 -3.84707999 1.94766998
5.80982018 1.42913997 1.74175000
0.55139101 -5.50525999 1.92771995
3.63965988 2.03512001 1.81964004
-4.62855005 1.98707998 1.99966002
-4.13368988 1.20844996 1.87599003
3.71304989 -1.32161999 1.69676995
3.97836995 -2.52731991 1.97933996
-1.14442003 5.09204006 1.98796999
-3.88741994 -4.64166021 1.69941998
2.94287992 4.35960007 1.98303998
-3.72973990 -4.06346989 1.93237996
5.43650007 1.39806998 1.90362000
-2.48395991 4.72379017 1.97139001
5.13916016 -2.43832994 1.87784004
-2.81083989 -3.66069007 1.96265996
4.60751009 -3.98625994 1.67519999
5.48731995 -0.81296802 1.92367995
-3.27874994 2.38286996 1.76168001
-3.19812012 -3.98844004 1.99684000
5.12085009 0.39715800 1.99536002
5.22235012 2.24591994 1.87909997
2.14636993 3.62983990 1.84033000
4.23716021 2.39067006 1.99544001
2.31157994 -3.60724998 1.86758006
0.34118101 -5.54462004 1.92141998
0.15093000 -4.80645990 1.99083996
1.81703997 -4.39482021 1.98501003
3.69895005 -4.02977991 1.94397998
-5.33210993 1.70843995 1.90814996
5.13511992 3.23563004 1.69002998
-0.70677203 6.03713989 1.68438005
-1.12454998 -5.36276007 1.94169998
2.57733989 2.93893003 1.67620003
-4.67248011 -3.71600008 1.74904001
4.20761013 3.47767997 1.94667006
-4.96514988 -1.07652998 1.99837995
-3.92451000 2.26639009 1.94445002
3.50550008 -2.27097988 1.82273996
-4.57334995 -1.18631995 1.98096001
0.36221701 -3.87122989 1.66244996
-1.85282004 4.69865990 1.99935997
-6.05913019 -1.02874005 1.63922000
3.12320995 -5.12858009 1.72931004
2.88887000 2.96062994 1.80400002
5.20308018 -1.86749995 1.92902994
0.29561901 -3.86111999 1.65183997
0.67636400 -4.15094995 1.83551002
-3.70813990 4.68823004 1.74487996
4.01603985 1.82467997 1.91134000
1.10487998 -3.88213992 1.75250995
-1.55536997 -5.11493015 1.96981001
-4.34135008 -1.99099004 1.98742998
4.77580976 0.83967900 1.99430001
-4.02162981 1.86919999 1.91847003
-4.96375990 -3.29036999 1.75711000
2.42847991 -5.44600010 1.75293005
1.54598999 3.50901008 1.62529004
-2.86891007 -5.19957018 1.76610994
1.31905997 4.25542021 1.92436004
3.03074002 -3.32485008 1.93620002
5.10278988 -0.19494200 1.99715996
-4.97706985 -0.86783898 1.99932003
2.85437989 3.20874000 1.87146997
-1.69259000 -4.10397005 1.91980004
2.97747993 -4.54519987 1.95243001
3.86227989 -4.20103979 1.87100005
1.19595003 -5.49114990 1.90151000
3.60172009 -2.19389009 1.84047997
-1.03694999 4.69468021 1.99074996
-1.77778006 -4.56651020 1.99751997
4.33405018 0.57625198 1.89891005
-4.20428991 -2.64400005 1.99971998
4.24245977 -1.27101004 1.91668999
-1.61837995 -5.60996008 1.81562996
-4.98541021 0.56800598 1.99992001
-4.44591999 -2.01292992 1.99642003
0.23815700 4.03963995 1.75816000
-3.08975005 -4.77295017 1.87876999
0.19365200 6.02672005 1.71448004
-2.16131997 5.69537020 1.67578006
3.96705008 2.63885999 1.98608994
-3.49129009 2.91233993 1.94790995
3.62354994 -4.01259995 1.95824003
-3.42143989 5.04793978 1.67151999
4.09743977 -1.12373996 1.85353994
4.62497997 1.96053004 1.99986005
1.77770996 -4.62397003 1.99947000
3.64574003 -1.91821003 1.79578996
-3.69503999 3.86040998 1.97022998
2.56119990 4.12193012 1.99458003
0.58536202 5.22999001 1.98267996
0.52371299 4.39801979 1.91679001
-4.58882999 -1.48269999 1.99210000
0.36041999 -4.85379982 1.99557996
1.13461006 -4.91470003 1.99951994
4.99384022 0.43995500 1.99995995
-1.11582005 -5.16416979 1.97983003
4.73808002 -0.77399898 1.99005997
0.88759398 -4.13985014 1.84747005
5.68292999 2.31699991 1.64529002
1.23397994 4.60034990 1.98590004
-4.85191011 3.06759000 1.85793996
3.89458990 1.22458005 1.77716994
-3.97025990 2.11048007 1.93553996
4.15894985 3.11712003 1.99022996
4.79206991 -1.70641005 1.99811006
-0.45396399 -3.91200995 1.69491005
-0.30719900 5.48133993 1.93905997
4.81527996 -0.14801000 1.99166000
-0.56456101 4.31730986 1.89282000
1.98758996 3.73151994 1.84493995
-4.68739986 -0.68024999 1.98257005
3.47643995 -3.35089993 1.99263000
-4.63525009 -2.40211010 1.98778999
4.03077984 3.43965006 1.97754002
4.24173021 2.38456988 1.99550998
0.48030600 4.43239021 1.92525005
3.53133988 -1.73842001 1.69351995
-5.18096018 -2.25746989 1.89093995
2.33225012 5.50803995 1.74261999
5.23046017 -1.91478002 1.91708004
4.70666981 -0.14900000 1.97871995
-0.00754116 5.58683014 1.91197002
-4.20752001 4.42627001 1.66571999
-3.96935010 -1.38599002 1.83492994
-4.93932009 3.38933992 1.73757994
-4.83445978 -2.56930995 1.94282997
5.16343021 3.16287994 1.69902003
5.21927023 -3.19806004 1.65620995
-0.48926201 4.15640020 1.82646000
-0.76329303 -4.40059996 1.92747998
-1.53421998 5.09189987 1.97455001
-1.07862997 5.20557022 1.97485006
-4.61711979 3.61995006 1.80229998
3.86811996 3.38944006 1.99487996
4.21025991 1.48193002 1.92668998
4.09992981 -2.30312991 1.97775996
4.34749985 1.36703002 1.95039999
3.13936996 4.97668982 1.79395998
3.31657004 -3.31290007 1.97546995
-4.67736006 3.53928995 1.80302000
-1.10536003 4.81961012 1.99924004
4.42453003 -4.11759996 1.70582998
-1.30519998 4.36840010 1.95081997
3.92395997 3.62153006 1.97092998
-2.58125997 -3.67358994 1.93382001
2.79345989 2.92289996 1.75624001
1.46010995 3.86806989 1.80302000
1.32219005 5.18603992 1.96879005
1.15987003 -4.66164017 1.99035001
-3.00041008 -4.55826998 1.94705999
4.06188011 -4.03722000 1.86320996
-3.17945004 4.63375998 1.90157998
-5.72175980 -0.00182480 1.86521995
-2.92332006 2.67576003 1.71016002
3.45174003 -3.98562002 1.98134005
-2.49979997 5.35873985 1.77937996
-2.52372003 4.55430984 1.98927999
-4.85104990 2.42799997 1.95438004
1.57942998 -5.75110006 1.75232005
1.01274002 -3.75908995 1.66577995
6.11550999 -0.08488770 1.65962005
-0.72055000 -5.25658989 1.97649002
6.03238010 1.08824003 1.65034997
-0.82341403 -5.19558001 1.98297000
3.86574006 -1.01424003 1.73006999
-2.64001989 -5.39170980 1.73011005
-5.06046009 -2.80460000 1.83922005
3.57084990 3.49084997 1.99998999
1.37094998 -4.14267015 1.89604998
3.70499992 4.53913021 1.80602002
4.72453022 -1.30199003 1.99752998
-1.36901999 5.99695015 1.63543999
-5.12149000 -0.56139600 1.99419999
0.29186299 4.68791008 1.97691000
-4.89322996 -3.56578994 1.69933999
-0.10775200 5.39179993 1.96103001
-2.48922992 -4.72417021 1.97090995
3.84419990 -0.62005901 1.66629004
-2.75428009 -3.04206991 1.78790998
3.95040011 -2.92270994 1.99814999
1.80350995 4.84393978 1.99286997
-2.36171007 4.43892002 1.99979997
0.80757302 4.84525013 1.99807000
-2.77788997 5.15881014 1.80604994
0.69002098 4.74225998 1.98917997
3.83425999 -3.26255012 1.99969995
3.92036009 2.75739002 1.98924994
3.41538000 -2.32919002 1.80279005
-5.67732000 -0.84457201 1.85813999
2.80210996 2.63300991 1.63283002
4.41053009 1.52688003 1.97213995
4.44229984 3.92711997 1.77100003
3.60939002 3.07181001 1.98297000
0.32940900 -4.66474009 1.97363997
-4.58782005 2.05501008 1.99981999
0.49904999 -4.15140009 1.82474995
1.83708000 -5.23567009 1.92328000
3.90785003 4.22991991 1.85046995
2.52358007 -4.36712980 1.99951994
-1.22610998 4.49791002 1.97124004
-5.18556976 -3.01058006 1.73426998
1.86222994 -4.10016012 1.93733001
5.71079016 -2.33368993 1.62263000
-4.71753979 -3.49000001 1.80174994
2.16540003 -5.39609003 1.82669997
3.47406006 1.72485006 1.65610003
3.63058996 -3.60993004 1.99641001
5.72735023 1.21360004 1.80825996
5.41310978 -2.50143003 1.75282001
-5.59049988 -2.42494988 1.67442000
1.63320005 -5.36131001 1.90644002
-2.87265992 3.03064990 1.82226002
-5.95761013 0.59854501 1.73915005
-1.01839995 -4.47398996 1.95719004
-3.79815006 -1.93562996 1.85923004
-0.21073000 -4.42360020 1.91664004
1.89855003 4.86174011 1.98793995
-1.39815998 3.75006008 1.73334002
0.88333601 -3.93058991 1.74827003
3.98867989 -4.07149982 1.87361002
-3.48846006 -2.33647990 1.83243001
-2.19840002 -4.02227020 1.95622003
5.68230009 -1.09524000 1.83870006
-3.95705009 4.38522005 1.78269994
5.90809011 0.49877599 1.77109003
-4.80046988 -1.34275997 1.99994004
-4.86766005 -2.12118006 1.97587001
3.16107988 -4.34721994 1.96452999
-5.18521976 0.08165500 1.99135005
3.90709996 -3.31909990 1.99599004
-2.77965999 3.77701998 1.97577000
-5.38399982 1.70200002 1.89259005
4.32486010 0.86118603 1.91092002
2.02370000 -4.17703009 1.96759999
-1.71247995 3.78688002 1.81323004
-3.53314996 3.31732988 1.99408996
0.58644497 -5.00316000 1.99965000
-5.71091986 0.01047790 1.86938000
-0.17882800 -4.99532986 2.00000000
5.23777008 -0.69738501 1.97973001
-1.43271995 -4.52008009 1.98325002
-3.92098999 1.73063004 1.86818004
2.86457992 5.33327007 1.69980001
5.42505980 0.33127299 1.95208001
-1.11751997 4.77473021 1.99767995
4.40725994 -1.23938000 1.95501995
-5.69832993 1.38508999 1.80362999
2.84219003 -2.96771002 1.79065001
-4.29819012 4.31601000 1.67611003
-3.59576011 3.25955009 1.99460995
5.14408016 0.72375101 1.99049997
-1.03302002 4.44919014 1.95267999
-3.83971000 -0.21448401 1.63327003
-3.75860000 4.21513987 1.89227998
-5.11890984 3.15348005 1.72488999
4.04987001 0.75681800 1.79598999
-3.37033010 -3.44629002 1.99191999
-1.44121003 -5.43359995 1.90099001
-3.56258011 4.02839994 1.96401000
2.92945004 3.44297004 1.94168997
-6.09900999 0.35925600 1.66398001
-3.03888011 -3.85848999 1.99803996
2.33832002 4.19704008 1.99041998
-3.04849005 -4.71564007 1.90303004
4.48631001 0.05090660 1.93297994
0.43739101 -5.10790014 1.99599004
5.39589977 -1.18017995 1.93027997
1.91001999 -5.42025995 1.85528004
-3.13016009 -3.44784999 1.97033000
4.68486977 -0.86049801 1.98593998
0.54912502 -4.59947014 1.96588004
-0.94834298 4.74107981 1.99318004
5.00782013 -1.74697995 1.97678995
-3.95164990 2.09768009 1.92956996
-1.58936000 5.49654007 1.86523998
-3.93618011 4.36805010 1.79604006
1.65823996 4.07552004 1.90787005
-3.31478000 -4.97935009 1.74243999
5.02481985 -2.26779008 1.93312001
-4.56413984 4.02156019 1.68131995
4.29635000 -1.10288000 1.91873002
5.53004980 1.50371003 1.86168003
3.80931997 2.91268992 1.98949003
1.71757996 -3.83888006 1.83545995
-0.55314201 -4.05763006 1.78360999
-4.12385988 -3.80638003 1.90406001
0.33602500 4.08857012 1.78724003
2.43501997 -4.37240982 1.99998999
-4.53246021 -2.28590989 1.99855006
3.34306002 -2.18382001 1.72807002
-1.81312001 5.81750011 1.67458999
-2.09802008 -5.04018021 1.94651997
-5.00089979 -0.18652201 2.00000000
2.79432988 4.13960981 1.99998999
1.83876002 -5.38436985 1.87732005
0.72692901 5.41036987 1.94661999
-4.28478003 1.19976997 1.92277002
0.92522103 5.72205019 1.83460999
2.61469007 2.85537004 1.65130997
1.32353997 -5.55577993 1.86925995
-1.64074004 -5.08381987 1.97054005
-1.40058994 4.88221979 1.99843001
0.33963901 -5.87295008 1.79463995
5.54093981 0.97341800 1.89956999
-5.56672001 1.61589003 1.83455002
-3.45634007 -3.64864993 1.99983001
-2.15702009 3.95384002 1.93751001
-5.45890999 -0.47614601 1.94164002
4.01870012 2.56961012 1.98672998
5.63006020 1.91940999 1.76091003
2.97750998 3.19489002 1.89726996
3.02375007 5.27126980 1.68527997
0.75791502 4.91899014 1.99986994
5.07317019 -1.85479999 1.95925999
3.96066999 -3.75723004 1.94655001
-4.50768995 -3.92815995 1.74395001
-0.97566199 -3.81981993 1.69753003
-2.62839007 -5.58568001 1.61976004
0.06631330 5.08104992 1.99834001
-5.21014977 2.05238008 1.90794003
4.03177023 1.57225001 1.88354003
2.91407990 4.32618999 1.98828995
-5.62542009 -0.71323901 1.88426995
3.63442993 -1.49292004 1.68913996
-3.65243006 -2.98451996 1.97984004
-2.21362996 3.77965999 1.90153003
3.38607001 -2.25269008 1.76901996
-1.11084998 4.42269993 1.95102000
5.12100983 0.64294302 1.99348998
0.54829901 4.35640001 1.90495002
-2.19655991 3.32248998 1.72209001
2.66450000 4.00176001 1.99073005
-3.77584004 -1.17846000 1.70556998
2.15960002 -5.03517008 1.94184995
-4.54916000 -2.00255990 1.99978006
2.74506998 -5.03354979 1.86066997
-2.65690994 5.34445000 1.74988997
1.12083995 5.99151993 1.67331004
-0.64299101 4.82094002 1.99535000
2.83577991 4.03317022 1.99879003
2.40358996 3.14270997 1.70620000
-1.87108004 3.76605010 1.83530998
2.39199996 3.67686009 1.90357006
5.39730978 0.11750400 1.95987999
-1.89978004 -3.60165000 1.77165997
3.30257010 5.05618000 1.70881999
-5.52339983 -2.73158002 1.62785006
-3.82131004 -3.33998990 1.99857998
-0.43291101 -3.85185003 1.65434003
-1.63682997 -3.84114003 1.82207000
5.01781988 0.67915201 1.99899006
2.81033993 4.73142004 1.93568003
1.33920002 -4.86226988 1.99952996
1.95299006 -4.37863016 1.98941004
2.74914002 -4.94232988 1.88953996
5.34497023 -0.72491300 1.96082997
3.58626008 1.57717001 1.68188000
4.30489016 3.06135011 1.97995996
-3.89584994 -1.46625996 1.81626999
1.09336996 -4.12189007 1.85982001
-5.82107019 1.49679995 1.72598004
2.67198992 5.01883984 1.87873995
-4.79428005 -0.12765500 1.98957002
4.28632021 2.25950003 1.99401999
-2.25573993 -3.98613000 1.95543003
4.70214987 0.33339500 1.97943997
-3.87276006 0.65955400 1.68877006
0.27831301 5.93613005 1.76391995
4.16701984 -3.69619012 1.91702998
3.17829990 -2.37257004 1.71209002
-3.44489002 -4.60595989 1.85336006
-5.21645021 3.15472007 1.67282999
-2.77428007 3.53047991 1.93391001
4.08402014 2.32274008 1.97712004
4.46511984 -0.08185830 1.92736006
-2.79666996 -2.95888996 1.77136004
1.87181997 -5.76365995 1.69599998
-4.13653994 0.08549990 1.80443001
3.52853990 2.27879000 1.83320999
3.64776993 2.55207992 1.92342997
3.86011004 -4.65303993 1.70481002
-5.60841990 -0.88127398 1.88185000
-0.94298398 -5.04180002 1.99582005
2.47767997 -3.04104996 1.68499994
-2.16644001 5.01807022 1.94500995
-3.49025011 1.75442004 1.67451000
3.17755008 2.20568991 1.64885998
2.69818997 5.49560022 1.65547001
3.98617005 2.11047006 1.93913996
1.18218994 -4.12864017 1.87145996
-5.71485996 0.98334801 1.83352995
3.57561994 3.98933005 1.96783996
2.90341997 -4.19003010 1.99760997
-1.96684003 5.11588001 1.94131005
-1.27960002 4.56877995 1.98362005
5.55324984 -0.42787400 1.91714001
-4.72646999 2.09256005 1.99284995
2.05861998 3.87859988 1.90505004
5.32504988 -1.94587004 1.88463998
2.89323997 4.22214985 1.99650002
-4.75563002 3.43326998 1.80306005
5.34778023 1.69531000 1.90468001
4.53067017 2.86395001 1.96733999
5.69899988 -1.76729000 1.75083995
-3.06770992 4.30804014 1.97906005
-0.99629003 -3.91093993 1.75225997
4.53408003 -1.72686994 1.99450004
1.65539002 4.73222017 1.99995995
-1.76537001 -3.60860991 1.74191999
-4.08320999 0.92768902 1.82742000
-4.28034019 -4.26665020 1.70611000
-2.67084002 4.23838997 1.99997997
1.97081006 -4.18899012 1.96537006
-1.88213003 4.56996012 1.99916995
3.24956012 3.34484005 1.97148001
-5.74908018 0.65997303 1.83871996
-4.97867012 2.94483995 1.83975995
0.79650497 3.98238993 1.76601005
-3.59993005 3.07283998 1.98210001
3.58111000 3.09453011 1.98209000
-5.49267006 2.01183009 1.81061006
1.15305996 4.67889023 1.99178004
2.71695995 -4.93178988 1.89795995
-3.09092999 4.19954014 1.98846996
2.90250993 5.20787001 1.75338995
-3.00814009 3.83927011 1.99624002
-3.17316008 4.83552980 1.84004998
-5.68899012 1.51012003 1.79304004
-6.04184008 0.51039201 1.69388998
-1.06369996 -5.42119980 1.92998004
6.13699007 0.06875660 1.64511001
-1.16698003 -4.53497982 1.97467005
-4.77315998 -3.60019994 1.74418998
4.16092014 -0.19851400 1.81764996
5.11566019 -1.02630997 1.98812997
4.77163982 0.51817799 1.98994005
6.04516983 0.91526401 1.66097999
-2.44913006 4.08245993 1.98564005
3.45490003 -2.12350988 1.76283002
0.25966799 4.71894979 1.98115003
2.72380996 4.43532991 1.98947001
-2.52812004 -3.97112989 1.97851002
1.10827994 5.93958998 1.70704997
-3.46809006 -4.61470985 1.84474003
-4.72680998 0.44733301 1.98405004
0.39744601 -5.53383017 1.92342997
-0.09170050 -5.47612000 1.94230998
-3.93074989 -1.86195004 1.89124000
-1.90924001 5.22004986 1.92051005
5.36280012 0.37849900 1.96431005
2.12184000 4.31394005 1.99072003
6.09425020 0.34183201 1.66779995
1.20437002 -4.57758999 1.98214996
-2.42794991 -4.80410004 1.96302998
-3.68349004 3.29674006 1.99919999
0.91148800 -5.14011002 1.98783004
3.83679008 -2.87307000 1.98929000
-3.90219998 -0.94359398 1.74044001
-5.44851017 -0.96018898 1.92781997
-3.18109012 -5.29683018 1.61579001
-3.85577011 3.56320000 1.98430002
0.64097100 -4.90500021 1.99928999
-0.18990800 5.96211004 1.75171995
-1.60021996 5.74840021 1.75070000
5.47938013 1.28565001 1.89877999
-3.97771001 -3.31803989 1.99188995
4.80715990 2.90183997 1.90305996
-0.68985897 -5.88369989 1.77374995
-1.07351005 -4.02680016 1.81847000
1.48908997 3.83665991 1.79377997
-3.38300991 -1.83363998 1.63488996
4.25450993 0.24465100 1.85868001
-0.58579397 5.01480007 1.99940002
3.57909989 -3.79153991 1.98852003
-4.57926989 -2.54128003 1.98589003
-5.03972006 -1.22425997 1.99131000
-3.26041007 2.70502996 1.84851003
2.34383988 4.60566998 1.99294996
-5.45668983 0.63759398 1.93807995
-3.86244988 -1.08448994 1.73881996
-4.31577015 3.03172994 1.98110998
-1.96826005 -5.63891983 1.74759996
-2.75530005 4.27529001 1.99813998
-3.15175009 2.51974010 1.75188994
-4.80321980 -2.32236004 1.97170997
-0.66278499 3.83406997 1.66433001
-4.44491005 -2.14300990 1.99892998
5.27991009 -1.39373004 1.94620001
2.02899003 -4.24391985 1.97797000
-2.55465007 -4.97510004 1.91016996
-0.91145903 -4.96506977 1.99942005
-3.62270999 4.50364017 1.84168994
-3.13058996 -5.28472996 1.64163005
